ply
format ascii 1.0
comment PCL generated
element vertex 580
property float x
property float y
property float z
property float nx
property float ny
property float nz
property float curvature
element camera 0
property float view_px
property float view_py
property float view_pz
property float x_axisx
property float x_axisy
property float x_axisz
property float y_axisx
property float y_axisy
property float y_axisz
property float z_axisx
property float z_axisy
property float z_axisz
property float focal
property float scalex
property float scaley
property float centerx
property float centery
property int viewportx
property int viewporty
property float k1
property float k2
end_header
-0.071640998 0.073292002 -0.010304 0.54644495 0.59708458 0.58727157 0.0063454928
-0.061523002 0.035413001 0.043880999 0.56215829 0.44642341 -0.69619274 0.081999332
0.015495 0.078281 -0.029826 -0.44460735 -0.052188504 0.89420396 0.00067358371
0.013392 0.077579997 -0.030703999 -0.44117048 -0.046791427 0.89620268 0.00091699435
0.010747 0.077373996 -0.032005999 -0.41301462 -0.030393485 0.91021705 0.0025831391
0.0092160003 0.077451997 -0.033068001 -0.3784681 -0.045315027 0.9245044 0.002215802
0.0072360002 0.077522002 -0.034023002 -0.34607828 -0.031962577 0.93766111 0.0030185282
0.004226 0.077559002 -0.034658998 -0.30466509 -0.011940787 0.95238471 0.0026459477
0.002226 0.077596001 -0.035253 -0.26055083 0.034852352 0.96483082 0.0029168648
0.00073099998 0.077614002 -0.03559 -0.25917485 0.046445947 0.96471304 0.0036909985
-0.001767 0.077646002 -0.036166999 -0.25229716 0.066565275 0.96535754 0.0027320655
-0.0047749998 0.077725999 -0.037326001 -0.2184604 0.086716652 0.97198522 0.0015692823
-0.0077789999 0.077748999 -0.037769999 -0.19022602 0.083134919 0.97821403 0.0014669484
-0.01028 0.077753998 -0.037939999 -0.17507665 0.066177458 0.98232818 0.0014596027
-0.011775 0.077761002 -0.038128 -0.1468052 0.057182893 0.98751116 0.0013415575
-0.013273 0.077768996 -0.038380999 -0.13002412 0.050129544 0.99024272 0.0013833652
-0.015779 0.077770002 -0.038570002 -0.056667853 0.038071007 0.9976669 0.0026437838
-0.018785 0.077790998 -0.038881 0.054087117 0.026549613 0.99818319 0.0042923642
-0.021802001 0.077774003 -0.038833998 0.24748863 0.038189404 0.96813786 0.0092278076
-0.023783 0.077018999 -0.038245 0.36242604 0.064958185 0.92974609 0.011107681
-0.024986999 0.077799998 -0.037512999 0.4651919 0.035413045 0.88450128 0.0095092282
-0.049240001 0.075318001 -0.017743999 -0.048737582 -0.44660968 -0.89340043 0.0078021558
-0.051743999 0.075346 -0.018124999 0.031801395 -0.46649259 -0.88395321 0.0029666279
-0.054737002 0.075351 -0.018474 0.0031976826 -0.47950119 -0.8775354 0.0038806219
-0.057742 0.075310998 -0.018485 -0.10641035 -0.46957842 -0.87645477 0.0050639631
-0.06024 0.075264998 -0.017808 -0.20280235 -0.42132306 -0.88394463 0.0045113503
-0.068706997 0.075746998 -0.015069 0.45490876 0.47458109 0.75354552 0.006702234
-0.071433 0.075762004 -0.012899 0.54241025 0.49440581 0.67923039 0.0047548879
-0.072618 0.074758999 -0.01084 0.56971252 0.54343641 0.61652625 0.0058649774
-0.07446 0.075461 -0.0096049998 0.5999468 0.50487572 0.62061602 0.003933188
-0.076862 0.116386 -0.005965 0.50149214 0.15320574 0.85148913 0.012733709
-0.054033 0.14793099 -0.001981 -0.0077133863 -0.26660129 -0.96377605 0.053430814
0.022741999 0.078372002 -0.026070001 -0.48660597 -0.061276644 0.8714698 0.0011454443
0.02125 0.078418002 -0.026735 -0.46250334 -0.058446158 0.88468897 0.00050300144
0.01925 0.078483999 -0.027698999 -0.44517222 -0.051340502 0.89397192 0.00052705867
0.016915999 0.078340001 -0.028984001 -0.44039819 -0.050486021 0.89638197 0.00063340052
-0.022864001 0.171703 -0.020373 -0.22522113 -0.29561237 -0.92837965 0.16905561
-0.03675 0.077593997 -0.019298 0.47909272 0.26585683 0.83653474 0.044190984
-0.039749 0.077560998 -0.018927 0.29310155 0.33433676 0.8957178 0.029828155
-0.042746998 0.077569 -0.019145999 -0.1036781 -0.33146018 -0.93775523 0.0066158348
-0.045745999 0.077531002 -0.018833 -0.030282071 -0.36521068 -0.9304322 0.0058184988
-0.048751 0.077519998 -0.018703001 0.015758026 -0.41160628 -0.91122556 0.006005419
-0.051752001 0.077535003 -0.019134 0.045520678 -0.44433814 -0.8947019 0.0023394632
-0.054749001 0.077542998 -0.019502999 -0.0054908982 -0.43624181 -0.89981282 0.0043009445
-0.057755001 0.077497996 -0.01926 -0.12888652 -0.38138804 -0.9153859 0.0072939219
-0.060748 0.077423997 -0.018494001 0.21739608 0.37502182 0.90116453 0.004845642
-0.063248999 0.077381 -0.017997 0.28221887 0.3550376 0.89123553 0.0047768555
-0.065940998 0.077168003 -0.017154001 0.35804978 0.36801246 0.85811836 0.0069383052
-0.068600997 0.078348003 -0.016287999 0.43635324 0.3615213 0.82395279 0.0060655228
-0.022366 0.103031 -0.023634 0.052520819 -0.33287922 0.94150567 0.0056845662
-0.024865 0.103026 -0.023629 0.10386441 -0.28147614 0.9539305 0.0032063613
0.013102 0.080995001 -0.030792 -0.43773875 -0.046712264 0.897888 0.00079988758
0.010723 0.080891997 -0.031867001 -0.40715623 -0.05934193 0.91142875 0.0013152674
0.0092329998 0.080944002 -0.032582998 -0.37899575 -0.073056512 0.92251021 0.0016925476
0.0072320001 0.080316 -0.033682 -0.35153481 -0.066979475 0.93377572 0.0018146713
0.004226 0.080346003 -0.034262002 -0.32090625 -0.059949588 0.94521177 0.0025837251
0.001892 0.080158003 -0.035027999 -0.30694914 -0.035980187 0.95104557 0.0027446728
0.00054099999 0.080669999 -0.035666998 -0.29725513 -0.031966135 0.95426285 0.0033390033
-0.001778 0.080481 -0.036447 -0.28125206 0.00014553122 0.95963401 0.0033526423
-0.0047840001 0.080539003 -0.037358999 -0.22864345 0.017315434 0.97335619 0.0023649083
-0.0077920002 0.080573 -0.037914 -0.17885447 0.024442337 0.98357195 0.002483994
-0.010123 0.080333002 -0.037976999 -0.15404476 0.0098497039 0.98801476 0.0025584733
-0.01279 0.080615997 -0.038779002 -0.12309437 -0.0032234692 0.9923898 0.0027442775
-0.015792999 0.080637001 -0.039163001 -0.042017594 -0.012707396 0.99903601 0.0036130375
-0.018802 0.080615997 -0.039046999 0.047574576 -0.020629097 0.99865466 0.0051884451
-0.021805 0.080588996 -0.038844001 0.2207043 -0.052947365 0.97390252 0.0064170118
-0.024801999 0.080495998 -0.037779 0.44190764 -0.069192424 0.89438808 0.0096818274
-0.064745001 0.078078002 -0.017813999 0.30653244 0.32728204 0.89382565 0.005052912
-0.071048997 0.078794003 -0.014935 0.52137262 0.3728126 0.76758158 0.0059987251
-0.073582001 0.077702999 -0.012202 0.61029994 0.41526881 0.67460054 0.0033492937
0.022738 0.081183001 -0.025837 -0.49749386 -0.089553468 0.86283255 0.0014082069
0.021243 0.081234999 -0.02661 -0.47873119 -0.073175803 0.87490672 0.0013218177
0.019235 0.081308 -0.027654 -0.46206215 -0.062086403 0.88467157 0.00095055142
0.016723 0.081399001 -0.028988 -0.44675079 -0.044118393 0.89356995 0.00083963625
0.015244 0.081454001 -0.029735001 -0.44774762 -0.04873766 0.89283073 0.00091056904
-0.010802 0.081294999 -0.038265999 -0.14563663 -0.0048257243 0.98932642 0.0025206939
-0.037262 0.079786003 -0.020169999 0.52146369 0.2673102 0.81032151 0.048126586
-0.039763 0.080476001 -0.020036999 0.31701702 0.28447759 0.90475005 0.026010664
-0.042762998 0.080468997 -0.020036001 -0.056467157 -0.32670653 -0.94343752 0.0039762487
-0.045763001 0.080452003 -0.019887 0.0070298077 -0.34217963 -0.93960822 0.0035742798
-0.048512001 0.080099002 -0.020133 0.048672214 -0.35749859 -0.93264455 0.0047716079
-0.051761001 0.079747997 -0.020388 0.04645104 -0.36568457 -0.92957896 0.0052879201
-0.054566 0.080637999 -0.021078 -0.063106112 -0.29589319 -0.95313418 0.0098939193
-0.055773001 0.079719 -0.020576 -0.062391043 -0.33234966 -0.94109035 0.0079067275
-0.058022998 0.080041997 -0.020133 0.16090229 0.287691 0.94411033 0.0073927375
-0.060772002 0.080325998 -0.019330001 0.24009635 0.23849213 0.94099694 0.0052593891
-0.063267998 0.080277003 -0.018774999 0.27877361 0.19486417 0.94037932 0.0041793133
-0.065775998 0.080683 -0.018099001 0.3097375 0.19509818 0.93059087 0.005715142
-0.066766001 0.079447001 -0.017468 0.36416918 0.28227708 0.8875249 0.0056776707
-0.076636001 0.078837998 -0.0091829998 0.68949962 0.37437344 0.62002808 0.0017178649
0.00721 0.083783001 -0.033043999 -0.35416269 -0.095436379 0.93030137 0.0010134204
0.0042070001 0.083851002 -0.034047 -0.33495033 -0.10616349 0.9362359 0.0015896931
0.0021899999 0.083893001 -0.034777001 -0.32122159 -0.10014092 0.9416945 0.0021063273
0.00069399999 0.08326 -0.035785999 -0.31821191 -0.087622486 0.94396162 0.0023269977
-0.001802 0.083338 -0.036935002 -0.28986585 -0.079092525 0.95379359 0.0035323829
-0.0048039998 0.083380997 -0.037691001 -0.2369546 -0.083377615 0.96793634 0.0039852243
-0.0078019998 0.083388001 -0.037914 -0.17198679 -0.078205928 0.98198998 0.0056355265
-0.012802 0.083442003 -0.038890999 -0.091981269 -0.076709121 0.99280173 0.0059437575
-0.015811 0.083458997 -0.039252002 -0.030483942 -0.08653371 0.99578249 0.006581706
-0.018815 0.083426997 -0.038987 0.07567405 -0.12654813 0.98906976 0.00781372
-0.021614 0.083247997 -0.038624 0.25637075 -0.11773732 0.9593811 0.0083213691
-0.024816001 0.083297998 -0.037627 0.4466117 -0.15976487 0.88034827 0.0091998009
-0.052884001 0.102762 -0.020563999 0.19030464 -0.26510227 0.94525385 0.0031535088
-0.016863 0.171718 -0.022940001 -0.3375833 -0.5793767 -0.74186265 0.19705525
-0.049267001 0.081202 -0.020785 0.055817954 -0.32239896 -0.94495672 0.005590972
-0.051766999 0.081225 -0.02115 0.024385598 -0.26824903 -0.96304089 0.0064815823
-0.057275999 0.081169002 -0.020855 0.14353548 0.24476534 0.95889914 0.007324683
-0.068970002 0.081405997 -0.017127 0.42505059 0.23127262 0.87512565 0.0073854155
-0.071737997 0.08145 -0.015768999 0.50622541 0.24363175 0.82727236 0.0081803268
-0.063276999 0.16371 -0.059367999 0.52675349 -0.45601398 -0.71734369 0.19306077
0.031227 0.083578996 -0.019640001 -0.57453483 -0.026515123 0.81805056 0.0037432287
-0.063890003 0.102518 -0.017614 0.36586928 -0.21112169 0.90640342 0.0041583008
0.021212 0.083355002 -0.026629999 -0.48457834 -0.12590232 0.86563987 0.0019542919
0.016721999 0.084214002 -0.028858 -0.46521714 -0.11660148 0.87748337 0.0032738664
0.015222 0.084262997 -0.029592 -0.45191374 -0.12586634 0.8831374 0.003720626
0.013215 0.084314004 -0.030431001 -0.43595308 -0.10190817 0.89418095 0.0017023765
0.010217 0.084390998 -0.031562999 -0.39024487 -0.1046978 0.91473895 0.0016860849
-0.022817999 0.084050998 -0.038164999 0.31619838 -0.1582339 0.935404 0.0090261698
-0.036793999 0.083499998 -0.022303 0.5170188 0.24144106 0.82121718 0.03407203
-0.039779998 0.083406001 -0.021329001 0.2557267 0.27362004 0.92721945 0.014768473
-0.042776 0.083368003 -0.021003 0.098433457 0.28384835 0.95380342 0.0079575945
-0.045777999 0.083374001 -0.021111 0.0058543724 -0.24653164 -0.96911705 0.0054802336
-0.048779 0.083383001 -0.021438001 -0.040176392 0.21474345 0.97584385 0.004922444
-0.051778 0.083374999 -0.021592 0.0019041473 0.20954885 0.97779632 0.0066427747
-0.054779999 0.083360001 -0.021511 0.12074687 0.16209374 0.97935992 0.0085191503
-0.057785001 0.083310001 -0.021042001 0.18453354 0.15917648 0.9698506 0.007383381
-0.060584001 0.083067 -0.019849 0.26186985 0.11969879 0.9576515 0.0046813684
-0.062913001 0.084039003 -0.019208999 0.28914112 0.071987942 0.95457596 0.0040387786
-0.065665998 0.083988003 -0.018696999 0.31876126 0.070889458 0.94518036 0.004723548
-0.067781001 0.082315996 -0.017855 0.38044629 0.13932975 0.91424716 0.0066392943
-0.073711999 0.082093 -0.014829 0.56385332 0.23827405 0.79075593 0.010380738
-0.065268002 0.163853 -0.059167001 0.43106973 0.2014378 0.87954628 0.13598295
-0.068244003 0.179461 -0.058921002 0.55527103 -0.0096569145 0.83161342 0.17049983
-0.034377001 0.105699 -0.020506 0.083370239 -0.34714979 0.93409657 0.0062760189
0.001196 0.087112002 -0.034627002 -0.30255389 -0.17717829 0.93651956 0.0033221263
0.00019200001 0.085363001 -0.035650998 -0.31719005 -0.13198042 0.93913347 0.0033501969
-0.001938 0.086627997 -0.036162 -0.26929724 -0.19109251 0.94390821 0.0034025416
-0.0048179999 0.086841002 -0.036795001 -0.22923897 -0.21827699 0.94858032 0.0031891097
-0.0076919999 0.086691 -0.037289999 -0.1669728 -0.24020363 0.9562543 0.0053689391
-0.015822001 0.086236 -0.038763002 -0.0079092402 -0.23306343 0.97242934 0.0076013985
-0.018626001 0.086067997 -0.038518 0.091416135 -0.23605698 0.9674297 0.0067832419
-0.020822 0.085477002 -0.038298 0.20423287 -0.24281244 0.9483307 0.0090385433
-0.021950001 0.087002002 -0.037530001 0.28428373 -0.3484374 0.89318198 0.0093219364
-0.024821 0.086751997 -0.036764 0.46027637 -0.3404921 0.8198846 0.012819282
-0.065816998 0.073400997 0.038449001 0.34472236 0.55540937 -0.75676084 0.0020832818
-0.067786001 0.084459998 -0.017975001 0.35343999 0.059547395 0.93356001 0.0050400738
-0.069300003 0.084404998 -0.017336 0.39023694 0.067387596 0.91824508 0.0057896851
-0.071782 0.084316999 -0.016287001 0.48280841 0.12194259 0.86719429 0.007960679
-0.074097 0.084461004 -0.01513 0.56634116 0.15146324 0.8101337 0.0089488719
0.013205 0.087159999 -0.030547 -0.43725836 -0.18363909 0.88038725 0.0043768361
0.010197 0.087219 -0.031528 -0.38612393 -0.17370428 0.90594435 0.0034375605
0.0072090002 0.087306999 -0.032839999 -0.35069355 -0.18402578 0.91823119 0.0036873433
0.0041970001 0.087348998 -0.033583 -0.33408347 -0.15973817 0.92890906 0.0024699734
-0.019834001 0.086871997 -0.037951 0.15427738 -0.31961375 0.93490404 0.0075023849
-0.036084 0.086708002 -0.023791 0.4714832 0.068588734 0.87920374 0.040462319
-0.037459001 0.086106002 -0.022428 0.46709341 0.12645222 0.87511915 0.035794478
-0.039793 0.086283997 -0.021752 0.25747284 0.1946367 0.94647998 0.013298824
-0.042789999 0.086255997 -0.021532999 0.12715262 0.20420636 0.97063476 0.0079627838
-0.045791 0.086264998 -0.021833999 0.047434669 0.15791498 0.98631281 0.0064374339
-0.018203 0.175668 -0.023932001 -0.49414822 -0.30493656 -0.81414455 0.1731776
-0.00080600003 0.088164002 -0.035184 -0.25792965 -0.24837315 0.93369323 0.0049186274
-0.066303998 0.075322002 0.039345998 0.35239944 0.49369803 -0.79503262 0.0019534167
-0.073872 0.109242 -0.0090570003 0.52371949 -0.34410357 0.7793014 0.0037329125
-0.033964001 0.033544999 -0.029820001 0.088806912 0.67312241 0.73417956 0.11504045
-0.031029999 0.033521999 -0.028098 0.089257158 -0.84282511 -0.53073442 0.10742554
-0.037246998 0.033615001 -0.027903 0.24253801 0.74057823 0.62667304 0.11520007
-0.034125 0.033592999 -0.02802 -0.10950921 -0.8285048 -0.54916984 0.10802138
-0.024807001 0.033560999 -0.025225 0.052132539 -0.9758693 -0.21204056 0.091396213
-0.021981001 0.033567 -0.024862999 0.077890337 -0.97253788 -0.21932428 0.08341594
-0.018856 0.033549 -0.024986999 0.07586918 -0.95909655 -0.27272275 0.099942945
-0.010047 0.033833999 -0.022113999 0.024093373 -0.97149521 -0.23583134 0.094107486
-0.0073009999 0.033870999 -0.022079 0.011917908 -0.96775836 -0.25159827 0.087833121
-0.0044760001 0.033877 -0.021718999 0.0015215084 -0.9719159 -0.23532361 0.087062381
-0.00132 0.033911001 -0.021888999 0.086723484 -0.93346941 -0.34801418 0.080052815
0.0074 0.034189001 -0.019345 0.025522703 -0.95238751 -0.30382019 0.071635947
0.010266 0.034347001 -0.019043 0.054818541 -0.94084394 -0.33437616 0.063803755
0.012674 0.034662999 -0.019055 0.25867832 -0.86077523 -0.43835092 0.035862368
-0.042528 0.034122001 -0.027354 0.65989333 0.42661753 0.61849672 0.12602817
-0.036398999 0.033534002 -0.025132 -0.06995412 -0.97562724 -0.20798507 0.076906152
-0.033654001 0.033573002 -0.025095999 0.026386546 -0.99525476 -0.093657427 0.037885066
-0.030828999 0.033578999 -0.024735 0.094194256 -0.99545002 -0.014377756 0.042835519
-0.027704 0.033564001 -0.024855001 0.10468105 -0.99371642 -0.039618328 0.052916195
-0.019323001 0.033679999 -0.022379 0.058736794 -0.99709272 0.048538506 0.069273077
-0.016202001 0.033792999 -0.021872001 0.0094044041 -0.99775839 0.066255257 0.073939405
-0.013298 0.033803001 -0.022251001 0.02083336 -0.99443144 -0.10330638 0.10225619
-0.0042570001 0.034047998 -0.01929 -0.0036688496 -0.98248929 0.18628298 0.059368987
-0.001535 0.034081999 -0.019068999 -0.023577051 -0.98343521 0.1797199 0.065645836
0.001051 0.034079999 -0.018936999 -0.048637979 -0.99003541 0.13215172 0.090975001
0.0041939998 0.034088999 -0.019084999 0.040453017 -0.99519581 -0.08915589 0.084654033
0.013035 0.034396999 -0.016282 0.23123153 -0.96067566 -0.15373462 0.040892426
0.014732 0.034734 -0.017658001 0.35288179 -0.88610488 -0.30048734 0.03392107
0.01554 0.034867998 -0.016178999 0.41897076 -0.87492788 -0.24282642 0.043722101
-0.039802 0.033539001 -0.024874 -0.35914356 -0.88126671 -0.30722103 0.10517312
-0.028140999 0.033744 -0.022298001 0.066867009 -0.98513067 0.15826027 0.069183096
-0.025028 0.033845 -0.021778001 0.046044309 -0.9646728 0.25939605 0.061713163
-0.022343 0.033776 -0.021655001 -0.011566335 -0.96931571 0.24554703 0.058327474
-0.013141 0.034145001 -0.019716 -0.023989851 -0.95253313 0.30348831 0.056982093
-0.010293 0.034258999 -0.019073 -0.050826333 -0.9396227 0.33841646 0.05148856
-0.0074720001 0.034258001 -0.018704001 -0.050752044 -0.94353765 0.32735437 0.049567867
0.001401 0.034495998 -0.016705999 -0.11607195 -0.89873922 0.42284173 0.02624112
0.0043179998 0.034382001 -0.016497999 -0.10496139 -0.95986187 0.26009274 0.050158467
0.007305 0.034253001 -0.015789 -0.11623651 -0.97597992 0.18426152 0.044421863
0.010189 0.034208 -0.016146 0.033749036 -0.99868131 -0.03868638 0.038069531
-0.086795002 0.111282 0.037046 -0.47914642 -0.87742198 0.023440057 0.01043481
-0.039480001 0.033606 -0.022353999 -0.21147606 -0.97495747 -0.068817221 0.090492792
-0.036814 0.033636 -0.021854 0.03474123 -0.99509686 0.092603318 0.03795049
-0.033911001 0.033783 -0.021602999 0.1456819 -0.95033193 0.27503806 0.025047448
-0.031144001 0.033863999 -0.021601001 0.1185399 -0.91863883 0.37689641 0.025998631
-0.021769 0.034869999 -0.019746 -0.023915187 -0.86455017 0.50197709 0.014740491
-0.019416001 0.034627002 -0.019711999 -0.048329554 -0.90240419 0.42817158 0.030291729
-0.016524 0.034697 -0.019207999 -0.061757442 -0.89656627 0.43858287 0.028302865
-0.0040910002 0.034556001 -0.017375 -0.036813531 -0.94846624 0.31473246 0.052178957
-0.001516 0.03461 -0.016914999 -0.095467173 -0.92341775 0.37173346 0.041498557
0.010224 0.034350999 -0.01342 -0.19497772 -0.96576405 0.17112425 0.034854144
0.013043 0.034332 -0.013047 0.0081577171 -0.99994045 0.0072585843 0.030281978
-0.043044001 0.033562999 -0.022273 0.51497096 0.81661636 0.26065823 0.10300759
-0.030999999 0.034786001 -0.020089 0.13584889 -0.90202129 0.40975949 0.022898836
-0.028177001 0.034653001 -0.020342 0.022423426 -0.89596212 0.44356403 0.020486614
-0.024961 0.034942999 -0.019977 -0.0078236675 -0.87809724 0.47841826 0.01587438
-0.016297 0.036102001 -0.018088 -0.048864033 -0.86842942 0.49339914 0.019842377
-0.013522 0.035360999 -0.018104 -0.073378228 -0.90402329 0.42113838 0.039626647
-0.011481 0.035365999 -0.017704001 -0.091273785 -0.88576794 0.4550651 0.021877551
-0.010327 0.036812 -0.016704001 -0.09038724 -0.86628038 0.49131295 0.014508642
-0.0073660002 0.036708001 -0.016256999 -0.058949098 -0.88394016 0.46386936 0.019047752
-0.0042829998 0.036754999 -0.015691999 -0.056038979 -0.86300308 0.50208104 0.012876618
-0.00113 0.036295 -0.01558 -0.063894674 -0.87365329 0.48233536 0.017278168
0.001697 0.03602 -0.015238 -0.12876044 -0.87550253 0.46574247 0.020461589
0.0038910001 0.035523001 -0.014813 -0.17002265 -0.89106995 0.42081654 0.022989798
0.0049390001 0.036779001 -0.013651 -0.29356119 -0.86871499 0.39894366 0.017911091
0.0077200001 0.035071999 -0.013639 -0.25939608 -0.9288851 0.26435983 0.030646063
0.013667 0.034377001 -0.010568 0.039865516 -0.99914879 -0.010610696 0.037668161
0.016084 0.034720998 -0.01055 0.33486691 -0.93722862 -0.097296193 0.046546239
0.018077999 0.035055 -0.010687 0.51686358 -0.85035127 -0.09876664 0.036816023
-0.042532001 0.033599 -0.019416001 -0.33147141 -0.93253779 -0.14317805 0.12395813
-0.039657 0.033698 -0.019125 -0.034898985 -0.99915868 0.021539845 0.054845031
-0.036940999 0.034074999 -0.018559 0.28183055 -0.91884303 0.27622291 0.023232438
-0.034153 0.034630999 -0.019174 0.20885605 -0.90252703 0.3765955 0.023323802
-0.030684 0.036692999 -0.01846 0.15825967 -0.86289102 0.47997183 0.015701966
-0.028021 0.036759999 -0.018793 0.037789017 -0.86567593 0.49917647 0.014518299
-0.025022 0.036734 -0.018842001 0.0092412122 -0.85784048 0.51383305 0.013495091
-0.021833999 0.036972001 -0.01843 -0.030716987 -0.86134428 0.50709224 0.014393229
-0.018971 0.036766998 -0.018142 -0.069046885 -0.83519733 0.54559869 0.013372945
-0.013554 0.037209999 -0.017008999 -0.080099806 -0.86822695 0.48965913 0.018076757
0.002077 0.037597999 -0.014084 -0.15852782 -0.86664099 0.47307751 0.016635947
0.0073839999 0.036617 -0.0125 -0.29754221 -0.90069491 0.31657118 0.026147798
0.0092630005 0.035677999 -0.010759 -0.32418993 -0.93776226 0.12451109 0.036815282
0.010707 0.034683 -0.010339 -0.28699332 -0.95755142 0.027021084 0.036037516
-0.045556001 0.034141 -0.019126 0.54663074 0.79198259 0.27195296 0.11162096
-0.033121001 0.035602 -0.01847 0.20972663 -0.88691002 0.41158873 0.017366143
-0.018224001 0.037689999 -0.017441999 -0.046973594 -0.88545799 0.46233928 0.021958867
-0.01616 0.037737001 -0.017074 -0.050612163 -0.87772292 0.47648811 0.021267394
-0.001178 0.038121998 -0.014458 -0.062161613 -0.87820578 0.4742263 0.017747596
0.0076230001 0.037356999 -0.010503 -0.42233127 -0.90053988 0.1032682 0.026425492
0.010636 0.034604002 -0.007462 -0.26785162 -0.96097296 -0.069184288 0.032907821
0.013236 0.034382001 -0.0072090002 -0.0708391 -0.99515957 -0.0681113 0.027742885
0.016253 0.034740999 -0.007129 0.24223469 -0.96165538 -0.12861317 0.035561834
0.018147999 0.034984 -0.0067889998 0.39537597 -0.90435439 -0.16068928 0.028811693
-0.071563996 0.066775002 0.024522001 -0.55033809 -0.75825721 0.34953398 0.0020820326
-0.045674 0.033668 -0.016212 -0.35502657 -0.9218989 -0.1551086 0.11896668
-0.042858999 0.033658002 -0.015827 -0.12679157 -0.99178529 0.016910756 0.10771599
-0.039716002 0.033973001 -0.015953001 0.13549943 -0.96680957 0.2166083 0.0448181
-0.037197001 0.034805 -0.016065 0.36164623 -0.88026005 0.30717131 0.01636705
-0.034251001 0.036998998 -0.016259 0.27959725 -0.87604874 0.39289171 0.015918974
-0.026214 0.038320001 -0.017738 0.014459452 -0.88223225 0.47059229 0.021320764
-0.024660001 0.038573001 -0.016542001 -0.017449915 -0.90237325 0.43060187 0.022735797
-0.021842999 0.038566999 -0.016164999 -0.032379307 -0.91040015 0.41246012 0.02394728
-0.018990999 0.038626 -0.01584 -0.030930318 -0.91641909 0.39902312 0.023939012
-0.01588 0.038593002 -0.015936 -0.041237514 -0.89715487 0.439787 0.023990653
-0.013294 0.038660999 -0.015486 -0.090466216 -0.91898257 0.38377964 0.026632719
-0.010741 0.038676001 -0.014991 -0.086456761 -0.90984607 0.40583909 0.026272316
-0.0073830001 0.038936 -0.013627 -0.050403368 -0.92143565 0.38524768 0.024255222
-0.0042849998 0.039012 -0.013083 -0.042369347 -0.90843761 0.41586772 0.022342971
-0.001554 0.039027002 -0.013021 -0.069623515 -0.91453743 0.39846438 0.024096046
0.001562 0.038819999 -0.01268 -0.15134679 -0.90127802 0.4059459 0.020690026
0.0040040002 0.038631 -0.012019 -0.29007363 -0.89772862 0.33157277 0.024079198
0.004613 0.038716 -0.010475 -0.32504928 -0.91729432 0.23003066 0.025554683
0.009087 0.035827 -0.0084260004 -0.38313991 -0.92368507 0.0031005817 0.035365496
0.019051 0.034972001 -0.004251 0.37851086 -0.90709698 -0.18413223 0.025846511
-0.047398001 0.034375001 -0.016468 0.58637816 0.69773346 0.41149563 0.14192158
-0.039545 0.034630001 -0.013283 0.33925569 -0.9213025 0.19001916 0.03269257
-0.036439002 0.035794999 -0.015584 0.33038673 -0.89249396 0.30708149 0.016548669
-0.032154001 0.038040001 -0.016799999 0.19752301 -0.89131212 0.40810221 0.019082461
-0.030447001 0.038568001 -0.015829001 0.14631088 -0.91001469 0.38789999 0.023734916
-0.027899001 0.038686 -0.016082 0.057951685 -0.90977478 0.41103706 0.023639258
-0.016294001 0.038810998 -0.013417 -0.023161149 -0.96365911 0.26612902 0.025632747
-0.013411 0.038927 -0.013136 -0.027128987 -0.95127112 0.30716002 0.030129952
-0.010262 0.038959999 -0.013288 -0.03766571 -0.95080298 0.30749789 0.027562864
-0.001516 0.03915 -0.010314 -0.069399662 -0.9601953 0.27057102 0.023897327
0.001228 0.039191999 -0.010275 -0.16440414 -0.96166676 0.21947257 0.028909013
0.0066999998 0.038323 -0.009323 -0.40704551 -0.90378875 0.13221133 0.030395498
0.0076310001 0.037083 -0.0075289998 -0.43718508 -0.89249557 -0.11099998 0.024603218
0.0099550001 0.034448002 -0.0044869999 -0.27781054 -0.9459635 -0.1672553 0.027059572
0.01321 0.034382001 -0.0044 -0.0051800678 -0.99702245 -0.0769381 0.011885513
0.015829001 0.03452 -0.004005 0.13051151 -0.99086869 -0.03385346 0.01204174
-0.045641001 0.033564001 -0.013062 -0.2185688 -0.95354009 -0.20733806 0.12954755
-0.042326 0.033728998 -0.013011 0.011391519 -0.99990147 0.0081968317 0.086130731
-0.036575001 0.037028 -0.013653 0.39465052 -0.87817419 0.27029824 0.012502914
-0.032614 0.038463999 -0.015422 0.2085534 -0.91227305 0.35251027 0.021183116
-0.027937001 0.038656 -0.01327 0.011563457 -0.98078841 0.19473174 0.019682309
-0.025219999 0.038654 -0.01319 -0.029167848 -0.98354918 0.17827012 0.017229047
-0.022483001 0.038685001 -0.013139 0.0070268125 -0.97707742 0.21276855 0.023192175
-0.019224999 0.038738001 -0.013003 0.0027343861 -0.97176689 0.23592734 0.025826236
-0.012821 0.038883001 -0.010612 -0.018677341 -0.98958737 0.14271663 0.017287068
-0.01029 0.038956001 -0.010483 -0.0028558869 -0.99170721 0.12848599 0.013571857
-0.0077160001 0.039005999 -0.010017 0.0093269162 -0.99630505 0.085376948 0.0081080133
-0.004795 0.039057001 -0.010414 -0.042326014 -0.97401345 0.22249997 0.022828624
0.0044530001 0.038918 -0.0075050001 -0.38529828 -0.92027438 -0.068120934 0.024652291
0.0061499998 0.038592 -0.0078059998 -0.40195128 -0.91546851 -0.01877854 0.031153519
0.0064929998 0.036123998 -0.0045360001 -0.40956503 -0.88219041 -0.23237142 0.016226461
0.0076640001 0.034837 -0.0040520001 -0.40243551 -0.88148445 -0.24704394 0.017625667
0.010381 0.034233 -0.001554 -0.085163161 -0.99633068 -0.0085097449 0.022895271
0.013097 0.034230001 -0.0014759999 0.0078001143 -0.99992132 0.0098293964 0.010856147
0.01588 0.034341998 -0.001492 0.10395837 -0.99450099 -0.01266277 0.013042511
0.019345 0.034774002 -0.001664 0.25675708 -0.95985329 -0.11294899 0.033182848
0.021426 0.034862 -0.001331 0.24296156 -0.95573121 -0.16597475 0.03426373
-0.045632001 0.033601001 -0.01033 -0.0014175695 -0.97925752 -0.20261471 0.11321788
-0.042805001 0.033806 -0.01041 0.21218404 -0.97655046 -0.036430556 0.070581831
-0.040307999 0.034657001 -0.010688 0.35322797 -0.93121636 0.089811713 0.035413567
-0.033923 0.038463 -0.012712 0.28279355 -0.93125403 0.22976898 0.023411967
-0.031168001 0.038649999 -0.013446 0.16110232 -0.96072084 0.2259679 0.020500546
-0.021621 0.038621999 -0.010392 0.00090230105 -0.9989866 0.044999398 0.0051850299
-0.018990999 0.038709 -0.010319 0.015590796 -0.99798542 0.061497618 0.0075443219
-0.016232001 0.038819 -0.010146 0.025036646 -0.9976818 0.06327828 0.0070884516
-0.0070850002 0.038956001 -0.0075099999 0.019674879 -0.99971068 0.013840783 0.004013062
-0.004309 0.039062001 -0.0075170002 0.0075656651 -0.99952537 0.029862344 0.0043498073
-0.00144 0.039154999 -0.0072150002 -0.062963046 -0.99759376 -0.029021027 0.0074448357
0.001745 0.039253999 -0.0074180001 -0.20031139 -0.97932428 -0.028271979 0.020064335
0.0051130001 0.037670001 -0.0043600001 -0.40066263 -0.87532789 -0.27068537 0.013881007
0.00709 0.034435999 -0.001469 -0.31563795 -0.93646866 -0.15296796 0.032808576
0.016303999 0.034483999 0.001363 0.064008862 -0.99791896 0.0077865045 0.016190395
0.01888 0.034471001 0.001514 0.079163462 -0.99653625 -0.025468288 0.017009841
0.021841999 0.034734 0.00168 0.14983872 -0.97883344 -0.13940392 0.026194733
0.024947001 0.036061 0.00014800001 0.26523709 -0.89025605 -0.37026128 0.020507794
0.028078999 0.036552999 0.00082700001 0.24413267 -0.87858707 -0.41046819 0.010632829
0.030802 0.036809001 0.001926 0.22624651 -0.88970923 -0.3965224 0.0087111257
0.031456999 0.037887 -6.5e-05 0.237913 -0.83314776 -0.49926168 0.0092108939
-0.051773001 0.033550002 -0.010134 -0.16977088 -0.89389062 -0.41489452 0.10659187
-0.048900001 0.033523001 -0.010453 -0.13369608 -0.93092853 -0.33984926 0.11418486
-0.037907001 0.036892999 -0.011328 0.42209831 -0.89158517 0.16403937 0.015106621
-0.036104999 0.038323 -0.012279 0.40396053 -0.88887495 0.21614161 0.017583737
-0.030761 0.038493998 -0.010437 0.092495821 -0.99340189 0.067802832 0.0098845679
-0.028041 0.0385 -0.010362 0.025211027 -0.99925584 0.029192969 0.0040393746
-0.02482 0.038488001 -0.010168 0.012445744 -0.999883 0.0088960323 0.0028739953
-0.016146 0.038727 -0.0075329999 0.028424082 -0.99943495 -0.017937487 0.00015963874
-0.013295 0.038791999 -0.0072070002 0.025434524 -0.99949908 -0.018834801 0.00018377176
-0.010378 0.03884 -0.0075969999 0.028398538 -0.99947637 -0.015507956 0.00015312903
-0.001355 0.039071001 -0.0046000001 -0.094891958 -0.99177009 -0.085951358 0.0096179061
0.001332 0.039046999 -0.0043219998 -0.28218636 -0.93854052 -0.19877785 0.022113549
0.003398 0.038897999 -0.0048910002 -0.36333758 -0.90999389 -0.19974215 0.018669682
0.0038370001 0.036504999 -0.001371 -0.39769879 -0.86708033 -0.30001208 0.013467494
0.0051910002 0.034711 -0.00070099998 -0.31563321 -0.93271148 -0.17442743 0.035637688
0.0075790002 0.034118 0.001252 -0.18788546 -0.97683281 -0.10245308 0.035908267
0.010177 0.034217 0.001682 -0.038791507 -0.99911618 -0.016183876 0.021076718
0.013132 0.034281999 0.0020310001 0.017543616 -0.99395478 0.10837965 0.0065576588
0.025268 0.034825001 0.004152 0.08965835 -0.98243701 -0.16364266 0.017653784
0.027494 0.035466999 0.0030789999 0.21069077 -0.92808735 -0.30702329 0.010642601
0.031417999 0.036026001 0.0045790002 0.23872198 -0.93833172 -0.25009075 0.0048793629
0.035999998 0.038114998 0.0023960001 0.33952296 -0.86326021 -0.37350497 0.0078225341
-0.048393998 0.033530001 -0.0076009999 -0.056511912 -0.96329343 -0.26243505 0.07650236
-0.045531999 0.033615001 -0.0072889999 0.03198114 -0.98229921 -0.18456815 0.061696548
-0.043152999 0.033810001 -0.0068029999 0.29794899 -0.95249069 -0.063150182 0.029346755
-0.040961001 0.034409001 -0.0078250002 0.41261685 -0.909935 0.042019095 0.017980108
-0.038589001 0.036901999 -0.009629 0.42885014 -0.89781708 0.10006037 0.017552553
-0.036683999 0.038327001 -0.0099299997 0.3911213 -0.91381621 0.10938071 0.017410642
-0.033647999 0.038497001 -0.010093 0.25296476 -0.96195132 0.10324021 0.018955525
-0.027806001 0.038396001 -0.0077169999 0.0074440637 -0.99969637 -0.023487564 4.5685345e-05
-0.025149999 0.038415 -0.0072010001 0.0090787876 -0.99962813 -0.025712918 5.099985e-05
-0.022530001 0.038488001 -0.0071100001 0.017907018 -0.99947178 -0.02712095 5.3817948e-05
-0.019353 0.038580999 -0.0073009999 0.026899673 -0.99930394 -0.025848659 4.3499047e-05
-0.010147 0.038798999 -0.0049069999 0.03001759 -0.99910307 -0.029866775 3.2221971e-05
-0.007336 0.038856 -0.0042070001 0.021884374 -0.99924362 -0.032144446 0.00012361302
-0.004805 0.038931001 -0.0040779999 -0.013903234 -0.99805158 -0.060826428 0.0033499093
0.001574 0.038609002 -0.001882 -0.36962944 -0.88876599 -0.27105168 0.020262847
0.004398 0.034373999 0.001772 -0.30643964 -0.92998433 -0.20303655 0.038639661
0.014167 0.034706999 0.002968 0.0028629524 -0.99530232 0.096773341 0.0072343913
0.016951 0.035144001 0.0031270001 0.060240924 -0.99781024 0.02730808 0.013936258
0.01939 0.034802999 0.0043959999 0.037298836 -0.99928051 -0.0068814498 0.012085174
0.022166001 0.034437001 0.0048170001 0.01817118 -0.99939382 -0.029694658 0.013010528
0.028128 0.035107002 0.0054029999 0.11888472 -0.97745746 -0.17447996 0.012377189
0.029758001 0.035296999 0.00556 0.18090425 -0.96467751 -0.19149657 0.0063847248
0.034033 0.036727 0.005196 0.29122478 -0.92455602 -0.24573216 0.0039651413
0.036578 0.037668001 0.0048159999 0.35675779 -0.90139574 -0.24537627 0.0039567668
-0.069374003 0.065502003 0.025203001 -0.50113344 -0.78240055 0.3697494 0.0024943366
-0.057271998 0.033429001 -0.0074649998 -0.16454715 -0.85331976 -0.49474192 0.10966124
-0.054469001 0.033404 -0.0070600002 -0.19416535 -0.89339459 -0.40514925 0.09822654
-0.051318001 0.033459 -0.0072079999 -0.084541053 -0.97051644 -0.22572248 0.060588546
-0.042431001 0.033902999 -0.0044490001 0.31744474 -0.94584888 -0.067813993 0.021376574
-0.039670002 0.036173999 -0.00734 0.42883632 -0.90338212 0.0003472984 0.012190012
-0.036522001 0.038387001 -0.007799 0.37511313 -0.92685544 0.01513491 0.020792251
-0.033964001 0.038442001 -0.0071479999 0.18284407 -0.98312986 0.0048658862 0.017469715
-0.031479001 0.038456 -0.0073079998 0.08271084 -0.99656796 0.0033369134 0.0065087979
-0.021652 0.038442999 -0.0043939999 0.02139139 -0.99948311 -0.023997013 5.3504104e-05
-0.018894 0.038520001 -0.004369 0.02630505 -0.99928933 -0.026995236 2.5142856e-05
-0.016122 0.038621999 -0.004367 0.028539088 -0.99917305 -0.028961523 2.8938743e-05
-0.012844 0.038720001 -0.0042619999 0.02910129 -0.99912328 -0.030095536 1.8720844e-05
-0.0042110002 0.038887002 -0.00156 -0.10009035 -0.98686141 -0.12683226 0.015440994
-0.0016 0.038943999 -0.0014590001 -0.21871619 -0.95976555 -0.17610584 0.02833649
0.0019759999 0.037896 -0.00053199998 -0.38070044 -0.88773072 -0.25884634 0.019562749
0.001599 0.036906 0.001225 -0.38653985 -0.88571543 -0.25708982 0.017546564
0.002503 0.035126001 0.0021019999 -0.32714224 -0.91995656 -0.21600458 0.032916982
0.004439 0.034196999 0.0044499999 -0.29494536 -0.93192834 -0.21099007 0.035271298
0.0071299998 0.034403998 0.004435 -0.16887939 -0.97817969 -0.12101352 0.033127382
0.010667 0.035160001 0.0037110001 0.010532287 -0.99924183 0.037479881 0.012077795
0.013449 0.035599001 0.0038689999 0.0082175359 -0.99364245 0.11228158 0.0069561028
0.016261 0.036093999 0.0039840001 -0.0084242849 -0.99677944 0.079747625 0.0097679701
0.018461 0.035459001 0.0050090002 0.028945608 -0.99958086 0.00044956827 0.013018495
0.022045 0.034701999 0.007216 -0.0078479592 -0.99994665 0.0067193042 0.010230764
0.025115 0.034587 0.0071410001 0.037318368 -0.99715012 -0.065567195 0.01142547
0.027795 0.034836002 0.0074510002 0.065495305 -0.99568629 -0.065721132 0.0095447926
0.030502999 0.03514 0.0077209999 0.19695397 -0.97498864 -0.1029866 0.0056272768
0.032246001 0.035535999 0.0077089998 0.26100585 -0.96063018 -0.095212556 0.003395203
0.034187 0.036299001 0.0074049998 0.31030834 -0.94082373 -0.13623336 0.0028740859
0.036768001 0.037349999 0.0069800001 0.35687143 -0.92326266 -0.14222844 0.0030456739
0.038895 0.038125001 0.0075889998 0.39607987 -0.91181374 -0.10824283 0.0026080923
0.040201001 0.03875 0.0073139998 0.43355113 -0.88937283 -0.14508423 0.0031037594
-0.079479001 0.1087 0.033013999 0.73716706 0.54190582 -0.40363687 0.091106899
-0.057704002 0.063484997 0.030664001 -0.26029083 -0.83573771 0.48351955 0.0037061982
-0.060114998 0.033507001 -0.0071959998 -0.21184784 -0.805098 -0.55401963 0.10437585
-0.054322001 0.033395 -0.0045540002 -0.077769361 -0.98615962 -0.14642787 0.036380693
-0.051577002 0.033487 -0.0043569999 -0.01218369 -0.99693322 -0.077303819 0.012352365
-0.048976 0.033530001 -0.0042380001 0.014280383 -0.99897599 -0.042930961 0.0060809189
-0.045802001 0.033624001 -0.0044149999 0.076739617 -0.99683881 -0.020579696 0.0039463528
-0.037246 0.038155001 -0.0068100002 0.40684962 -0.91346806 -0.0070258109 0.01703579
-0.030618999 0.038369998 -0.0045639998 0.0083815064 -0.99978846 -0.018778779 6.9073634e-05
-0.027825 0.038330998 -0.0041490002 0.0048847613 -0.99978483 -0.020159913 4.6904337e-05
-0.02493 0.038344 -0.004501 0.011587633 -0.99969959 -0.021598423 4.5040393e-05
-0.016225001 0.038462002 -0.001464 0.027248042 -0.99926436 -0.026988439 2.6350957e-05
-0.013456 0.038559001 -0.001457 0.0280692 -0.99921656 -0.027900266 2.7503997e-05
-0.010671 0.038683001 -0.001471 0.028870849 -0.99911183 -0.030692507 1.9933763e-05
-0.007375 0.038816001 -0.001391 0.011201805 -0.99916863 -0.0391999 0.00065148709
-0.00109 0.038745999 0.001175 -0.29361039 -0.93267679 -0.2095397 0.027539138
0.00047100001 0.038277999 0.00067899999 -0.32355121 -0.91536695 -0.23962046 0.023784401
0.00056999997 0.036180001 0.0038419999 -0.38128072 -0.90121073 -0.20601988 0.025019065
0.001679 0.034667 0.0048210002 -0.32939133 -0.91893876 -0.21691684 0.03144205
0.0094290003 0.036029998 0.004528 -0.011418375 -0.99990898 0.0071867798 0.017111538
0.0196 0.03602 0.0065870001 0.027116161 -0.99959618 -0.0085003488 0.012432671
0.025029 0.034467999 0.010025 -0.024408305 -0.999569 0.016308045 0.0058707679
0.027977999 0.034715001 0.010209 0.057058528 -0.99837083 -0.00020222021 0.0069734128
0.030669 0.035050001 0.01082 0.15917598 -0.98724949 -0.001241527 0.0064057522
0.03359 0.03568 0.010465 0.30144417 -0.95338553 -0.013687687 0.0025372752
0.036800001 0.036961999 0.010312 0.36314711 -0.93128121 -0.028974859 0.002349868
-0.077220999 0.070219003 0.021822 0.69311792 0.6743561 -0.25462013 0.0025348729
-0.063129 0.033415999 -0.00453 -0.2496887 -0.82777232 -0.50244254 0.12451088
-0.060433999 0.033413999 -0.0042559998 -0.073331438 -0.95226121 -0.29634622 0.079589374
-0.057973001 0.033388998 -0.0043720002 -0.10288307 -0.94044942 -0.32399091 0.095429815
-0.048023 0.033599999 -0.00164 0.030464493 -0.99947602 0.010936504 0.00077233376
-0.045513999 0.033663999 -0.00183 0.057234243 -0.99806494 -0.024303908 0.0043885475
-0.042691 0.033741001 -0.001148 0.20010914 -0.9764713 -0.080375157 0.023384741
-0.039967 0.034391001 -0.002104 0.35398558 -0.9224683 -0.15409927 0.021741034
-0.036295999 0.038353 -0.0049569998 0.35973424 -0.92641068 -0.11115161 0.017172366
-0.033725001 0.038399 -0.0044800001 0.17432243 -0.98349333 -0.048502836 0.017252348
-0.02496 0.038309 -0.0017040001 0.012496578 -0.9997403 -0.019059613 4.1244042e-05
-0.022169 0.038330998 -0.00097599998 0.014959891 -0.99968654 -0.020075966 3.1304313e-05
-0.019477 0.038410001 -0.0016120001 0.023843151 -0.99939996 -0.025121547 3.031997e-05
-0.0098069999 0.038617998 0.001264 0.023733038 -0.9993071 -0.028669903 5.3328662e-05
-0.0071930001 0.038677 0.001367 -0.045933276 -0.99641538 -0.071038783 0.0063885939
-0.0045210002 0.038729999 0.001861 -0.16784485 -0.98119843 -0.09527681 0.019623777
-0.00034200001 0.038045999 0.0025790001 -0.33567697 -0.91601521 -0.21962953 0.021520549
0.001586 0.034474 0.0073230001 -0.39876783 -0.9027456 -0.16135207 0.023403764
0.0037400001 0.034104999 0.0076009999 -0.27526075 -0.95105869 -0.14042389 0.028440375
0.0062190001 0.035133999 0.0065489998 -0.14281276 -0.97910571 -0.14476316 0.026443928
0.0078819999 0.036327001 0.0058019999 -0.096245207 -0.9878543 -0.12198663 0.029687574
0.020897999 0.035937 0.0087850001 -0.045889892 -0.99780327 0.047779497 0.0057960944
0.022336001 0.035684001 0.010546 -0.063678771 -0.99781251 0.017759481 0.0053869127
0.022994 0.035110001 0.0099630002 -0.046941359 -0.99855286 0.026244724 0.0054572755
0.039374001 0.038159002 0.010513 0.41084829 -0.91156691 -0.015792016 0.0017958658
0.040915001 0.039028 0.0099449996 0.42844573 -0.90243542 -0.045218054 0.0026167571
0.042801 0.039965 0.010607 0.46077892 -0.88702619 -0.029449465 0.001658017
0.045017 0.041060001 0.0088950004 0.49392655 -0.86580539 -0.080109403 0.0030633067
-0.079651996 0.070444003 0.015237 0.75899458 0.64364779 -0.098207705 0.0053489441
-0.080752999 0.109486 0.036591999 -0.39982674 -0.90482247 0.14640659 0.027702151
-0.057039 0.033415001 -0.001757 -0.018201318 -0.99866843 -0.048270736 0.0082922103
-0.054198999 0.033461999 -0.001404 0.011015872 -0.99992746 0.0048787892 4.368641e-05
-0.051454 0.033523001 -0.001357 0.016193544 -0.99981785 0.010098393 0.00018246954
-0.039816 0.033721998 0.00127 0.21940809 -0.96938151 -0.11027029 0.032858871
-0.035480998 0.038304999 -0.002909 0.3520841 -0.91778189 -0.18361181 0.015797939
-0.033608001 0.038314998 -0.002084 0.28212759 -0.9381988 -0.20046696 0.020423736
-0.03098 0.038344 -0.00094300002 0.1431412 -0.98024762 -0.13647452 0.020504383
-0.028333999 0.038353 -0.0015059999 0.006089638 -0.99974066 -0.021942072 6.5990833e-05
-0.018999999 0.038364999 0.001284 0.020724058 -0.99958903 -0.019806171 3.7341873e-05
-0.016167 0.038399 0.0016439999 0.022647033 -0.99952692 -0.020808542 3.3580989e-05
-0.01301 0.038467001 0.001492 0.027034633 -0.99931777 -0.025164096 3.9897222e-05
-0.0042679999 0.038640998 0.0044689998 -0.25053027 -0.96100938 -0.1170282 0.023607604
-0.0023439999 0.038546 0.004185 -0.27342626 -0.94842577 -0.16039515 0.024662351
-0.00092600001 0.037303999 0.004989 -0.36659595 -0.90889907 -0.19877093 0.020670973
-0.0014750001 0.036807001 0.0074539999 -0.42741427 -0.89248997 -0.14414865 0.01539814
0.004367 0.034102 0.010053 -0.22577298 -0.97233337 -0.05995246 0.022773823
0.024857 0.034809999 0.013379 -0.022327593 -0.99895442 0.039894197 0.0064512398
0.027667001 0.034678999 0.013155 0.0571298 -0.99760157 0.039078906 0.0066147563
0.030428 0.035080999 0.013349 0.16784965 -0.9836694 0.064969972 0.0074561718
0.032147001 0.035436999 0.013373 0.24308707 -0.96805364 0.06148833 0.0034752074
0.034359001 0.036185998 0.013752 0.31210506 -0.94616252 0.085830495 0.0024822077
0.036773998 0.037099998 0.01372 0.36527213 -0.92799819 0.073454931 0.0017589292
0.038550001 0.037891001 0.012458 0.39860961 -0.9158026 0.049153 0.0019010436
0.039795998 0.038538001 0.013346 0.40874615 -0.90995896 0.070009209 0.0013217769
-0.065710999 0.033473998 -0.0014900001 -0.31019458 -0.92317206 -0.22700818 0.08071579
-0.063046001 0.033392001 -0.001327 -0.09535563 -0.98186338 -0.16386455 0.036380269
-0.060309 0.033438999 -0.001267 -0.030833218 -0.99402326 -0.10472417 0.020073788
-0.051456001 0.033503 0.001374 0.039322618 -0.99712402 0.064786702 0.0050921175
-0.04871 0.033569999 0.001417 0.035893448 -0.99560863 0.086458787 0.0069797388
-0.045954 0.033652 0.00145 0.031124966 -0.99512655 0.093564786 0.0094020599
-0.042757999 0.033606 0.001684 -0.022264268 -0.99592888 0.087349452 0.0092589213
-0.037640002 0.033672001 0.002661 0.2699787 -0.95217717 -0.14307386 0.035775293
-0.033163 0.038194999 -0.00052499998 0.26036406 -0.93695706 -0.2330707 0.022320114
-0.027892999 0.038279001 0.001194 0.0080969185 -0.99967617 -0.02412639 5.2690826e-05
-0.025126999 0.038316 0.001449 0.012287871 -0.99969357 -0.021489538 3.6687779e-05
-0.021903999 0.038318001 0.001646 0.014986001 -0.99971151 -0.018772636 3.799592e-05
-0.016013 0.038392 0.0041359998 0.022138137 -0.99959755 -0.017738484 6.0466659e-06
-0.013288 0.038447998 0.0043649999 0.025161501 -0.9995023 -0.019028747 4.1803716e-05
-0.010438 0.038518 0.0046970001 0.016249515 -0.99951726 -0.026479628 0.00019459896
-0.007524 0.038578 0.0043210001 -0.051514722 -0.99744278 -0.049539991 0.0067107747
-0.000143 0.034979001 0.0099839997 -0.44539163 -0.8917793 -0.07972423 0.012182606
0.0012450001 0.034412 0.010323 -0.36722544 -0.92770261 -0.067181349 0.021947907
0.022756999 0.036051001 0.013349 -0.048120547 -0.99857146 0.023226935 0.0062552094
0.028085999 0.034949001 0.01555 0.070550151 -0.99434042 0.079433359 0.009849919
0.030337 0.035227999 0.015025 0.16733132 -0.9788115 0.11801787 0.0068491632
0.031094 0.035684999 0.01613 0.24388731 -0.9553389 0.16687316 0.002712036
0.033679001 0.036393002 0.01556 0.30232474 -0.94337511 0.13654049 0.002035802
0.042523 0.039855 0.013243 0.43215823 -0.89946157 0.064871028 0.0012500893
0.044806998 0.040936001 0.0136 0.46709177 -0.88185757 0.064440273 0.0017070838
0.046250999 0.041646 0.013182 0.50230372 -0.86450469 0.017961202 0.0017810387
-0.069463998 0.033845998 -0.0015360001 0.79515207 0.47716334 0.3742303 0.11061413
-0.060286999 0.033459 0.001427 -0.0057689263 -0.99992555 0.010752161 9.1934955e-05
-0.057556 0.033500001 0.001493 0.0038771559 -0.99992162 0.011901904 2.740301e-05
-0.054830998 0.033527002 0.001569 0.012460891 -0.99981052 0.014955521 0.00017199927
-0.045104001 0.033514 0.0041880002 0.010741818 -0.99096417 0.13369593 0.011333754
-0.042505998 0.033558998 0.0043119998 -0.053586308 -0.99057126 0.12608409 0.011226396
-0.039832 0.033613 0.004805 -0.047276054 -0.98702997 0.15341723 0.01127866
-0.036793999 0.033656001 0.0046569998 0.24817853 -0.9623661 -0.11072007 0.041476637
-0.035232 0.033725001 0.0049140002 0.28340301 -0.94797069 -0.14503169 0.035210945
-0.031298 0.038185999 0.001677 0.27867562 -0.93902034 -0.20144676 0.021058636
-0.029712999 0.038295001 0.001901 0.19499104 -0.96585196 -0.17061214 0.022949863
-0.027718 0.038222998 0.0023699999 0.01230356 -0.99960762 -0.025162794 6.7157453e-05
-0.024180001 0.038282 0.003638 0.016849088 -0.99959111 -0.023102496 8.7777094e-05
-0.022435 0.03827 0.0043060002 0.017832614 -0.99957746 -0.022954836 5.2053918e-05
-0.020939 0.038217001 0.0046580001 0.018947728 -0.999623 -0.019869229 3.5417062e-05
-0.019408001 0.038332999 0.004561 0.020034503 -0.99963808 -0.017953193 4.1777603e-05
-0.0072590001 0.038561001 0.006939 -0.092562586 -0.99383557 -0.061015747 0.011308183
-0.0046399999 0.038516998 0.0075090001 -0.28804633 -0.95542973 -0.064678602 0.024325049
-0.0017509999 0.036495999 0.01071 -0.43793705 -0.89850509 -0.029996587 0.012451285
0.001543 0.034387998 0.012859 -0.39181477 -0.91964382 0.027135832 0.012815091
0.0042559998 0.034012999 0.013565 -0.26771852 -0.9630605 0.029004818 0.019530399
0.022202 0.036065999 0.015652999 -0.013373373 -0.99958444 0.025537519 0.0073636887
0.024882 0.034855999 0.016076 -0.0017159573 -0.99973011 0.02316856 0.0084193908
0.036853999 0.037668001 0.016571 0.36272261 -0.91805696 0.1600115 0.0013874358
0.038373999 0.038178999 0.01581 0.38942483 -0.91045272 0.1393702 0.0016825985
0.039962001 0.038926002 0.01637 0.39836743 -0.90302461 0.16077924 0.0014022219
0.042631 0.040084001 0.015837001 0.4366017 -0.89032912 0.12920167 0.0011502026
-0.063262001 0.063720003 0.027811 -0.3073639 -0.8514688 0.42488635 0.0011284605
-0.075515002 0.068172 0.019405 0.67222434 0.71236688 -0.20161329 0.0030075144
-0.069008999 0.033613998 0.001314 0.6098026 0.77719504 0.15526953 0.097919963
-0.066386998 0.033450998 0.001547 -0.34695175 -0.93502951 -0.073104732 0.074456342
-0.063692003 0.033425 0.001667 -0.11020204 -0.99367362 -0.021639196 0.01556811
-0.054129999 0.033550002 0.0039459998 0.060601298 -0.99699229 0.048310492 0.005159548
-0.051603001 0.033521999 0.0044860002 0.080035813 -0.99502772 0.05927898 0.0071709841
-0.048647001 0.033505999 0.00465 0.07051114 -0.9916141 0.1083038 0.010156882
-0.039774999 0.033969998 0.0076879999 -0.10410614 -0.97262782 0.20774265 0.0083421497
-0.036777001 0.033670001 0.0073620002 0.071053803 -0.99744487 -0.0074198376 0.040077522
-0.034423001 0.033743002 0.0074720001 0.2661666 -0.9576233 -0.11005883 0.038146384
-0.029956 0.038153 0.003792 0.27485839 -0.93554735 -0.22181977 0.020047341
-0.028329 0.038127001 0.0047510001 0.2294361 -0.9580586 -0.17170569 0.024095172
-0.025853001 0.038214002 0.0045710001 0.017387282 -0.9994157 -0.029426469 7.5881027e-05
-0.019571999 0.038224999 0.0067440001 0.021566074 -0.99958718 -0.018985795 3.9016966e-05
-0.018284 0.038313001 0.0072280001 0.021265563 -0.99962354 -0.017337924 3.9762159e-05
-0.015955999 0.038330998 0.0073799998 0.020863252 -0.99963903 -0.016927468 7.9530338e-07
-0.013221 0.038378999 0.0074390001 0.022096675 -0.99959815 -0.017755955 3.0764892e-05
-0.009962 0.038449001 0.007582 0.012438782 -0.99967229 -0.022373451 0.00017606703
-0.0046569998 0.038435001 0.0098829996 -0.30176178 -0.95195973 -0.052081294 0.020853737
-0.0033710001 0.0381 0.010145 -0.336355 -0.93994331 -0.058067217 0.021634137
-0.000386 0.035146002 0.013417 -0.44130626 -0.8934353 0.083798312 0.0097467536
0.0066359998 0.034232002 0.015969001 -0.21619809 -0.96731645 0.13250437 0.010755804
0.022863001 0.035197001 0.017178999 0.02640984 -0.99906933 0.034103293 0.0085488502
0.024924999 0.034931 0.018750001 0.10233196 -0.98909944 0.10587984 0.013738922
0.027419999 0.035158999 0.018138001 0.11934547 -0.98171628 0.14828977 0.011059486
0.028407 0.035624001 0.019135 0.15857582 -0.96385008 0.21411835 0.010202717
0.030939 0.036215 0.018994 0.25316423 -0.93483138 0.2489944 0.0022968317
0.033966001 0.037048999 0.018492 0.3083339 -0.92133653 0.23678918 0.0018599664
0.036093 0.037723999 0.018497 0.3339006 -0.91701305 0.21816842 0.0015898406
0.044369999 0.041083001 0.016163999 0.44645238 -0.88577616 0.1268101 0.0013967231
0.045965001 0.041847002 0.016697001 0.46633485 -0.87122726 0.15328047 0.0024938001
